0.02249 0.01633 -0.08349
0.03095 0.01633 -0.07297
0.03639 0.01633 -0.05970
0.03826 0.01633 -0.04500
0.03829 0.01867 -0.04500
0.03642 0.01867 -0.03025
0.03098 0.01867 -0.01695
0.02251 0.01867 -0.00639
0.01183 0.01867 0.00039
0.00000 0.01867 0.00273
-0.01183 0.01867 0.00039
-0.02251 0.01867 -0.00639
-0.03098 0.01867 -0.01695
-0.03642 0.01867 -0.03025
-0.03829 0.01867 -0.04500
-0.03642 0.01867 -0.05975
-0.03098 0.01867 -0.07305
-0.02251 0.01867 -0.08361
-0.01183 0.01867 -0.09039
-0.00000 0.01867 -0.09273
0.01183 0.01867 -0.09039
0.02251 0.01867 -0.08361
0.03098 0.01867 -0.07305
0.03642 0.01867 -0.05975
0.03829 0.01867 -0.04500
0.03832 0.02100 -0.04500
0.03645 0.02100 -0.03021
0.03100 0.02100 -0.01687
0.02253 0.02100 -0.00628
0.01184 0.02100 0.00052
0.00000 0.02100 0.00287
-0.01184 0.02100 0.00052
-0.02253 0.02100 -0.00628
-0.03100 0.02100 -0.01687
-0.03645 0.02100 -0.03021
-0.03832 0.02100 -0.04500
-0.03645 0.02100 -0.05979
-0.03100 0.02100 -0.07313
-0.02253 0.02100 -0.08372
-0.01184 0.02100 -0.09052
-0.00000 0.02100 -0.09287
0.01184 0.02100 -0.09052
0.02253 0.02100 -0.08372
0.03100 0.02100 -0.07313
0.03645 0.02100 -0.05979
0.03832 0.02100 -0.04500
0.03835 0.02333 -0.04500
0.03647 0.02333 -0.03017
0.03102 0.02333 -0.01679
0.02254 0.02333 -0.00617
0.01185 0.02333 0.00065
0.00000 0.02333 0.00300
-0.01185 0.02333 0.00065
-0.02254 0.02333 -0.00617
-0.03102 0.02333 -0.01679
-0.03647 0.02333 -0.03017
-0.03835 0.02333 -0.04500
-0.03647 0.02333 -0.05983
-0.03102 0.02333 -0.07321
-0.02254 0.02333 -0.08383
-0.01185 0.02333 -0.09065
-0.00000 0.02333 -0.09300
0.01185 0.02333 -0.09065
0.02254 0.02333 -0.08383
0.03102 0.02333 -0.07321
0.03647 0.02333 -0.05983
0.03835 0.02333 -0.04500
0.03837 0.02567 -0.04500
0.03649 0.02567 -0.03013
0.03104 0.02567 -0.01672
0.02255 0.02567 -0.00607
0.01186 0.02567 0.00076
0.00000 0.02567 0.00312
-0.01186 0.02567 0.00076
-0.02255 0.02567 -0.00607
-0.03104 0.02567 -0.01672
-0.03649 0.02567 -0.03013
-0.03837 0.02567 -0.04500
-0.03649 0.02567 -0.05987
-0.03104 0.02567 -0.07328
-0.02255 0.02567 -0.08393
-0.01186 0.02567 -0.09076
-0.00000 0.02567 -0.09312
0.01186 0.02567 -0.09076
0.02255 0.02567 -0.08393
0.03104 0.02567 -0.07328
0.03649 0.02567 -0.05987
0.03837 0.02567 -0.04500
0.03838 0.02800 -0.04500
0.03651 0.02800 -0.03010
0.03105 0.02800 -0.01665
0.02256 0.02800 -0.00598
0.01186 0.02800 0.00087
0.00000 0.02800 0.00323
-0.01186 0.02800 0.00087
-0.02256 0.02800 -0.00598
-0.03105 0.02800 -0.01665
-0.03651 0.02800 -0.03010
-0.03838 0.02800 -0.04500
-0.03651 0.02800 -0.05990
-0.03105 0.02800 -0.07335
-0.02256 0.02800 -0.08402
-0.01186 0.02800 -0.09087
-0.00000 0.02800 -0.09323
0.01186 0.02800 -0.09087
0.02256 0.02800 -0.08402
0.03105 0.02800 -0.07335
0.03651 0.02800 -0.05990
0.03838 0.02800 -0.04500
0.03839 0.03033 -0.04500
0.03651 0.03033 -0.03006
0.03106 0.03033 -0.01659
0.02257 0.03033 -0.00590
0.01186 0.03033 0.00097
0.00000 0.03033 0.00333
-0.01186 0.03033 0.00097
-0.02257 0.03033 -0.00590
-0.03106 0.03033 -0.01659
-0.03651 0.03033 -0.03006
-0.03839 0.03033 -0.04500
-0.03651 0.03033 -0.05994
-0.03106 0.03033 -0.07341
-0.02257 0.03033 -0.08410
-0.01186 0.03033 -0.09097
-0.00000 0.03033 -0.09333
0.01186 0.03033 -0.09097
0.02257 0.03033 -0.08410
0.03106 0.03033 -0.07341
0.03651 0.03033 -0.05994
0.03839 0.03033 -0.04500
0.03840 0.03267 -0.04500
0.03652 0.03267 -0.03004
0.03107 0.03267 -0.01654
0.02257 0.03267 -0.00582
0.01187 0.03267 0.00105
0.00000 0.03267 0.00342
-0.01187 0.03267 0.00105
-0.02257 0.03267 -0.00582
-0.03107 0.03267 -0.01654
-0.03652 0.03267 -0.03004
-0.03840 0.03267 -0.04500
-0.03652 0.03267 -0.05996
-0.03107 0.03267 -0.07346
-0.02257 0.03267 -0.08418
-0.01187 0.03267 -0.09105
-0.00000 0.03267 -0.09342
0.01187 0.03267 -0.09105
0.02257 0.03267 -0.08418
0.03107 0.03267 -0.07346
0.03652 0.03267 -0.05996
0.03840 0.03267 -0.04500
0.03840 0.03500 -0.04500
0.03652 0.03500 -0.03001
0.03107 0.03500 -0.01649
0.02257 0.03500 -0.00576
0.01187 0.03500 0.00113
0.00000 0.03500 0.00351
-0.01187 0.03500 0.00113
-0.02257 0.03500 -0.00576
-0.03107 0.03500 -0.01649
-0.03652 0.03500 -0.03001
-0.03840 0.03500 -0.04500
-0.03652 0.03500 -0.05999
-0.03107 0.03500 -0.07351
-0.02257 0.03500 -0.08424
-0.01187 0.03500 -0.09113
-0.00000 0.03500 -0.09351
0.01187 0.03500 -0.09113
0.02257 0.03500 -0.08424
0.03107 0.03500 -0.07351
0.03652 0.03500 -0.05999
0.03840 0.03500 -0.04500
0.03839 0.03733 -0.04500
0.03652 0.03733 -0.02999
0.03106 0.03733 -0.01644
0.02257 0.03733 -0.00569
0.01186 0.03733 0.00121
0.00000 0.03733 0.00358
-0.01186 0.03733 0.00121
-0.02257 0.03733 -0.00569
-0.03106 0.03733 -0.01644
-0.03652 0.03733 -0.02999
-0.03839 0.03733 -0.04500
-0.03652 0.03733 -0.06001
-0.03106 0.03733 -0.07356
-0.02257 0.03733 -0.08431
-0.01186 0.03733 -0.09121
-0.00000 0.03733 -0.09358
0.01186 0.03733 -0.09121
0.02257 0.03733 -0.08431
0.03106 0.03733 -0.07356
0.03652 0.03733 -0.06001
0.03839 0.03733 -0.04500
0.03839 0.03967 -0.04500
0.03651 0.03967 -0.02997
0.03105 0.03967 -0.01640
0.02256 0.03967 -0.00564
0.01186 0.03967 0.00127
0.00000 0.03967 0.00365
-0.01186 0.03967 0.00127
-0.02256 0.03967 -0.00564
-0.03105 0.03967 -0.01640
-0.03651 0.03967 -0.02997
-0.03839 0.03967 -0.04500
-0.03651 0.03967 -0.06003
-0.03105 0.03967 -0.07360
-0.02256 0.03967 -0.08436
-0.01186 0.03967 -0.09127
-0.00000 0.03967 -0.09365
0.01186 0.03967 -0.09127
0.02256 0.03967 -0.08436
0.03105 0.03967 -0.07360
0.03651 0.03967 -0.06003
0.03839 0.03967 -0.04500
0.03837 0.04200 -0.04500
0.03649 0.04200 -0.02995
0.03104 0.04200 -0.01637
0.02255 0.04200 -0.00560
0.01186 0.04200 0.00132
0.00000 0.04200 0.00371
-0.01186 0.04200 0.00132
-0.02255 0.04200 -0.00560
-0.03104 0.04200 -0.01637
-0.03649 0.04200 -0.02995
-0.03837 0.04200 -0.04500
-0.03649 0.04200 -0.06005
-0.03104 0.04200 -0.07363
-0.02255 0.04200 -0.08440
-0.01186 0.04200 -0.09132
-0.00000 0.04200 -0.09371
0.01186 0.04200 -0.09132
0.02255 0.04200 -0.08440
0.03104 0.04200 -0.07363
0.03649 0.04200 -0.06005
0.03837 0.04200 -0.04500
0.03835 0.04433 -0.04500
0.03647 0.04433 -0.02993
0.03103 0.04433 -0.01634
0.02254 0.04433 -0.00556
0.01185 0.04433 0.00137
0.00000 0.04433 0.00375
-0.01185 0.04433 0.00137
-0.02254 0.04433 -0.00556
-0.03103 0.04433 -0.01634
-0.03647 0.04433 -0.02993
-0.03835 0.04433 -0.04500
-0.03647 0.04433 -0.06007
-0.03103 0.04433 -0.07366
-0.02254 0.04433 -0.08444
-0.01185 0.04433 -0.09137
-0.00000 0.04433 -0.09375
0.01185 0.04433 -0.09137
0.02254 0.04433 -0.08444
0.03103 0.04433 -0.07366
0.03647 0.04433 -0.06007
0.03835 0.04433 -0.04500
0.03833 0.04667 -0.04500
0.03645 0.04667 -0.02992
0.03101 0.04667 -0.01632
0.02253 0.04667 -0.00553
0.01184 0.04667 0.00140
0.00000 0.04667 0.00379
-0.01184 0.04667 0.00140
-0.02253 0.04667 -0.00553
-0.03101 0.04667 -0.01632
-0.03645 0.04667 -0.02992
-0.03833 0.04667 -0.04500
-0.03645 0.04667 -0.06008
-0.03101 0.04667 -0.07368
-0.02253 0.04667 -0.08447
-0.01184 0.04667 -0.09140
-0.00000 0.04667 -0.09379
0.01184 0.04667 -0.09140
0.02253 0.04667 -0.08447
0.03101 0.04667 -0.07368
0.03645 0.04667 -0.06008
0.03833 0.04667 -0.04500
0.03830 0.04900 -0.04500
0.03642 0.04900 -0.02992
0.03098 0.04900 -0.01631
0.02251 0.04900 -0.00551
0.01183 0.04900 0.00143
0.00000 0.04900 0.00382
-0.01183 0.04900 0.00143
-0.02251 0.04900 -0.00551
-0.03098 0.04900 -0.01631
-0.03642 0.04900 -0.02992
-0.03830 0.04900 -0.04500
-0.03642 0.04900 -0.06008
-0.03098 0.04900 -0.07369
-0.02251 0.04900 -0.08449
-0.01183 0.04900 -0.09143
-0.00000 0.04900 -0.09382
0.01183 0.04900 -0.09143
0.02251 0.04900 -0.08449
0.03098 0.04900 -0.07369
0.03642 0.04900 -0.06008
0.03830 0.04900 -0.04500
0.03826 0.05133 -0.04500
0.03639 0.05133 -0.02991
0.03096 0.05133 -0.01630
0.02249 0.05133 -0.00549
0.01182 0.05133 0.00144
0.00000 0.05133 0.00383
-0.01182 0.05133 0.00144
-0.02249 0.05133 -0.00549
-0.03096 0.05133 -0.01630
-0.03639 0.05133 -0.02991
-0.03826 0.05133 -0.04500
-0.03639 0.05133 -0.06009
-0.03096 0.05133 -0.07370
-0.02249 0.05133 -0.08451
-0.01182 0.05133 -0.09144
-0.00000 0.05133 -0.09383
0.01182 0.05133 -0.09144
0.02249 0.05133 -0.08451
0.03096 0.05133 -0.07370
0.03639 0.05133 -0.06009
0.03826 0.05133 -0.04500
0.03822 0.05367 -0.04500
0.03635 0.05367 -0.02991
0.03092 0.05367 -0.01629
0.02247 0.05367 -0.00549
0.01181 0.05367 0.00145
0.00000 0.05367 0.00384
-0.01181 0.05367 0.00145
-0.02247 0.05367 -0.00549
-0.03092 0.05367 -0.01629
-0.03635 0.05367 -0.02991
-0.03822 0.05367 -0.04500
-0.03635 0.05367 -0.06009
-0.03092 0.05367 -0.07371
-0.02247 0.05367 -0.08451
-0.01181 0.05367 -0.09145
-0.00000 0.05367 -0.09384
0.01181 0.05367 -0.09145
0.02247 0.05367 -0.08451
0.03092 0.05367 -0.07371
0.03635 0.05367 -0.06009
0.03822 0.05367 -0.04500
0.03818 0.05600 -0.04500
0.03631 0.05600 -0.02991
0.03089 0.05600 -0.01629
0.02244 0.05600 -0.00549
0.01180 0.05600 0.00145
0.00000 0.05600 0.00384
-0.01180 0.05600 0.00145
-0.02244 0.05600 -0.00549
-0.03089 0.05600 -0.01629
-0.03631 0.05600 -0.02991
-0.03818 0.05600 -0.04500
-0.03631 0.05600 -0.06009
-0.03089 0.05600 -0.07371
-0.02244 0.05600 -0.08451
-0.01180 0.05600 -0.09145
-0.00000 0.05600 -0.09384
0.01180 0.05600 -0.09145
0.02244 0.05600 -0.08451
0.03089 0.05600 -0.07371
0.03631 0.05600 -0.06009
0.03818 0.05600 -0.04500
0.03813 0.05833 -0.04500
0.03627 0.05833 -0.02991
0.03085 0.05833 -0.01630
0.02241 0.05833 -0.00550
0.01178 0.05833 0.00144
0.00000 0.05833 0.00382
-0.01178 0.05833 0.00144
-0.02241 0.05833 -0.00550
-0.03085 0.05833 -0.01630
-0.03627 0.05833 -0.02991
-0.03813 0.05833 -0.04500
-0.03627 0.05833 -0.06009
-0.03085 0.05833 -0.07370
-0.02241 0.05833 -0.08450
-0.01178 0.05833 -0.09144
-0.00000 0.05833 -0.09382
0.01178 0.05833 -0.09144
0.02241 0.05833 -0.08450
0.03085 0.05833 -0.07370
0.03627 0.05833 -0.06009
0.03813 0.05833 -0.04500
0.03808 0.06067 -0.04500
0.03622 0.06067 -0.02992
0.03081 0.06067 -0.01631
0.02238 0.06067 -0.00552
0.01177 0.06067 0.00141
0.00000 0.06067 0.00380
-0.01177 0.06067 0.00141
-0.02238 0.06067 -0.00552
-0.03081 0.06067 -0.01631
-0.03622 0.06067 -0.02992
-0.03808 0.06067 -0.04500
-0.03622 0.06067 -0.06008
-0.03081 0.06067 -0.07369
-0.02238 0.06067 -0.08448
-0.01177 0.06067 -0.09141
-0.00000 0.06067 -0.09380
0.01177 0.06067 -0.09141
0.02238 0.06067 -0.08448
0.03081 0.06067 -0.07369
0.03622 0.06067 -0.06008
0.03808 0.06067 -0.04500
0.03802 0.06300 -0.04500
0.03616 0.06300 -0.02993
0.03076 0.06300 -0.01633
0.02235 0.06300 -0.00554
0.01175 0.06300 0.00138
0.00000 0.06300 0.00377
-0.01175 0.06300 0.00138
-0.02235 0.06300 -0.00554
-0.03076 0.06300 -0.01633
-0.03616 0.06300 -0.02993
-0.03802 0.06300 -0.04500
-0.03616 0.06300 -0.06007
-0.03076 0.06300 -0.07367
-0.02235 0.06300 -0.08446
-0.01175 0.06300 -0.09138
-0.00000 0.06300 -0.09377
0.01175 0.06300 -0.09138
0.02235 0.06300 -0.08446
0.03076 0.06300 -0.07367
0.03616 0.06300 -0.06007
0.03802 0.06300 -0.04500
0.03796 0.06533 -0.04500
0.03610 0.06533 -0.02994
0.03071 0.06533 -0.01636
0.02231 0.06533 -0.00558
0.01173 0.06533 0.00134
0.00000 0.06533 0.00373
-0.01173 0.06533 0.00134
-0.02231 0.06533 -0.00558
-0.03071 0.06533 -0.01636
-0.03610 0.06533 -0.02994
-0.03796 0.06533 -0.04500
-0.03610 0.06533 -0.06006
-0.03071 0.06533 -0.07364
-0.02231 0.06533 -0.08442
-0.01173 0.06533 -0.09134
-0.00000 0.06533 -0.09373
0.01173 0.06533 -0.09134
0.02231 0.06533 -0.08442
0.03071 0.06533 -0.07364
0.03610 0.06533 -0.06006
0.03796 0.06533 -0.04500
0.03789 0.06767 -0.04500
0.03604 0.06767 -0.02996
0.03065 0.06767 -0.01639
0.02227 0.06767 -0.00562
0.01171 0.06767 0.00130
0.00000 0.06767 0.00368
-0.01171 0.06767 0.00130
-0.02227 0.06767 -0.00562
-0.03065 0.06767 -0.01639
-0.03604 0.06767 -0.02996
-0.03789 0.06767 -0.04500
-0.03604 0.06767 -0.06004
-0.03065 0.06767 -0.07361
-0.02227 0.06767 -0.08438
-0.01171 0.06767 -0.09130
-0.00000 0.06767 -0.09368
0.01171 0.06767 -0.09130
0.02227 0.06767 -0.08438
0.03065 0.06767 -0.07361
0.03604 0.06767 -0.06004
0.03789 0.06767 -0.04500
0.03782 0.07000 -0.04500
0.03597 0.07000 -0.02998
0.03060 0.07000 -0.01642
0.02223 0.07000 -0.00567
0.01169 0.07000 0.00124
0.00000 0.07000 0.00362
-0.01169 0.07000 0.00124
-0.02223 0.07000 -0.00567
-0.03060 0.07000 -0.01642
-0.03597 0.07000 -0.02998
-0.03782 0.07000 -0.04500
-0.03597 0.07000 -0.06002
-0.03060 0.07000 -0.07358
-0.02223 0.07000 -0.08433
-0.01169 0.07000 -0.09124
-0.00000 0.07000 -0.09362
0.01169 0.07000 -0.09124
0.02223 0.07000 -0.08433
0.03060 0.07000 -0.07358
0.03597 0.07000 -0.06002
0.03782 0.07000 -0.04500
0.03774 0.07233 -0.04500
0.03590 0.07233 -0.03000
0.03053 0.07233 -0.01647
0.02218 0.07233 -0.00573
0.01166 0.07233 0.00117
0.00000 0.07233 0.00355
-0.01166 0.07233 0.00117
-0.02218 0.07233 -0.00573
-0.03053 0.07233 -0.01647
-0.03590 0.07233 -0.03000
-0.03774 0.07233 -0.04500
-0.03590 0.07233 -0.06000
-0.03053 0.07233 -0.07353
-0.02218 0.07233 -0.08427
-0.01166 0.07233 -0.09117
-0.00000 0.07233 -0.09355
0.01166 0.07233 -0.09117
0.02218 0.07233 -0.08427
0.03053 0.07233 -0.07353
0.03590 0.07233 -0.06000
0.03774 0.07233 -0.04500
0.03766 0.07467 -0.04500
0.03582 0.07467 -0.03002
0.03047 0.07467 -0.01651
0.02214 0.07467 -0.00579
0.01164 0.07467 0.00109
0.00000 0.07467 0.00347
-0.01164 0.07467 0.00109
-0.02214 0.07467 -0.00579
-0.03047 0.07467 -0.01651
-0.03582 0.07467 -0.03002
-0.03766 0.07467 -0.04500
-0.03582 0.07467 -0.05998
-0.03047 0.07467 -0.07349
-0.02214 0.07467 -0.08421
-0.01164 0.07467 -0.09109
-0.00000 0.07467 -0.09347
0.01164 0.07467 -0.09109
0.02214 0.07467 -0.08421
0.03047 0.07467 -0.07349
0.03582 0.07467 -0.05998
0.03766 0.07467 -0.04500
0.03758 0.07700 -0.04500
0.03574 0.07700 -0.03005
0.03040 0.07700 -0.01656
0.02209 0.07700 -0.00586
0.01161 0.07700 0.00101
0.00000 0.07700 0.00338
-0.01161 0.07700 0.00101
-0.02209 0.07700 -0.00586
-0.03040 0.07700 -0.01656
-0.03574 0.07700 -0.03005
-0.03758 0.07700 -0.04500
-0.03574 0.07700 -0.05995
-0.03040 0.07700 -0.07344
-0.02209 0.07700 -0.08414
-0.01161 0.07700 -0.09101
-0.00000 0.07700 -0.09338
0.01161 0.07700 -0.09101
0.02209 0.07700 -0.08414
0.03040 0.07700 -0.07344
0.03574 0.07700 -0.05995
0.03758 0.07700 -0.04500
0.03749 0.07933 -0.04500
0.03565 0.07933 -0.03008
0.03033 0.07933 -0.01662
0.02204 0.07933 -0.00594
0.01158 0.07933 0.00092
0.00000 0.07933 0.00328
-0.01158 0.07933 0.00092
-0.02204 0.07933 -0.00594
-0.03033 0.07933 -0.01662
-0.03565 0.07933 -0.03008
-0.03749 0.07933 -0.04500
-0.03565 0.07933 -0.05992
-0.03033 0.07933 -0.07338
-0.02204 0.07933 -0.08406
-0.01158 0.07933 -0.09092
-0.00000 0.07933 -0.09328
0.01158 0.07933 -0.09092
0.02204 0.07933 -0.08406
0.03033 0.07933 -0.07338
0.03565 0.07933 -0.05992
0.03749 0.07933 -0.04500
0.03739 0.08167 -0.04500
0.03556 0.08167 -0.03011
0.03025 0.08167 -0.01669
0.02198 0.08167 -0.00603
0.01156 0.08167 0.00081
0.00000 0.08167 0.00317
-0.01156 0.08167 0.00081
-0.02198 0.08167 -0.00603
-0.03025 0.08167 -0.01669
-0.03556 0.08167 -0.03011
-0.03739 0.08167 -0.04500
-0.03556 0.08167 -0.05989
-0.03025 0.08167 -0.07331
-0.02198 0.08167 -0.08397
-0.01156 0.08167 -0.09081
-0.00000 0.08167 -0.09317
0.01156 0.08167 -0.09081
0.02198 0.08167 -0.08397
0.03025 0.08167 -0.07331
0.03556 0.08167 -0.05989
0.03739 0.08167 -0.04500
0.03730 0.08400 -0.04500
0.03547 0.08400 -0.03015
0.03017 0.08400 -0.01675
0.02192 0.08400 -0.00612
0.01153 0.08400 0.00070
0.00000 0.08400 0.00305
-0.01153 0.08400 0.00070
-0.02192 0.08400 -0.00612
-0.03017 0.08400 -0.01675
-0.03547 0.08400 -0.03015
-0.03730 0.08400 -0.04500
-0.03547 0.08400 -0.05985
-0.03017 0.08400 -0.07325
-0.02192 0.08400 -0.08388
-0.01153 0.08400 -0.09070
-0.00000 0.08400 -0.09305
0.01153 0.08400 -0.09070
0.02192 0.08400 -0.08388
0.03017 0.08400 -0.07325
0.03547 0.08400 -0.05985
0.03730 0.08400 -0.04500
0.03720 0.08633 -0.04500
0.03537 0.08633 -0.03019
0.03009 0.08633 -0.01683
0.02186 0.08633 -0.00623
0.01149 0.08633 0.00058
0.00000 0.08633 0.00293
-0.01149 0.08633 0.00058
-0.02186 0.08633 -0.00623
-0.03009 0.08633 -0.01683
-0.03537 0.08633 -0.03019
-0.03720 0.08633 -0.04500
-0.03537 0.08633 -0.05981
-0.03009 0.08633 -0.07317
-0.02186 0.08633 -0.08377
-0.01149 0.08633 -0.09058
-0.00000 0.08633 -0.09293
0.01149 0.08633 -0.09058
0.02186 0.08633 -0.08377
0.03009 0.08633 -0.07317
0.03537 0.08633 -0.05981
0.03720 0.08633 -0.04500
0.03709 0.08867 -0.04500
0.03527 0.08867 -0.03023
0.03001 0.08867 -0.01691
0.02180 0.08867 -0.00633
0.01146 0.08867 0.00045
0.00000 0.08867 0.00279
-0.01146 0.08867 0.00045
-0.02180 0.08867 -0.00633
-0.03001 0.08867 -0.01691
-0.03527 0.08867 -0.03023
-0.03709 0.08867 -0.04500
-0.03527 0.08867 -0.05977
-0.03001 0.08867 -0.07309
-0.02180 0.08867 -0.08367
-0.01146 0.08867 -0.09045
-0.00000 0.08867 -0.09279
0.01146 0.08867 -0.09045
0.02180 0.08867 -0.08367
0.03001 0.08867 -0.07309
0.03527 0.08867 -0.05977
0.03709 0.08867 -0.04500
0.03698 0.09100 -0.04500
0.03517 0.09100 -0.03027
0.02992 0.09100 -0.01699
0.02174 0.09100 -0.00645
0.01143 0.09100 0.00032
0.00000 0.09100 0.00265
-0.01143 0.09100 0.00032
-0.02174 0.09100 -0.00645
-0.02992 0.09100 -0.01699
-0.03517 0.09100 -0.03027
-0.03698 0.09100 -0.04500
-0.03517 0.09100 -0.05973
-0.02992 0.09100 -0.07301
-0.02174 0.09100 -0.08355
-0.01143 0.09100 -0.09032
-0.00000 0.09100 -0.09265
0.01143 0.09100 -0.09032
0.02174 0.09100 -0.08355
0.02992 0.09100 -0.07301
0.03517 0.09100 -0.05973
0.03698 0.09100 -0.04500
0.03687 0.09333 -0.04500
0.03506 0.09333 -0.03032
0.02983 0.09333 -0.01708
0.02167 0.09333 -0.00657
0.01139 0.09333 0.00018
0.00000 0.09333 0.00250
-0.01139 0.09333 0.00018
-0.02167 0.09333 -0.00657
-0.02983 0.09333 -0.01708
-0.03506 0.09333 -0.03032
-0.03687 0.09333 -0.04500
-0.03506 0.09333 -0.05968
-0.02983 0.09333 -0.07292
-0.02167 0.09333 -0.08343
-0.01139 0.09333 -0.09018
-0.00000 0.09333 -0.09250
0.01139 0.09333 -0.09018
0.02167 0.09333 -0.08343
0.02983 0.09333 -0.07292
0.03506 0.09333 -0.05968
0.03687 0.09333 -0.04500
0.03675 0.09567 -0.04500
0.03495 0.09567 -0.03037
0.02973 0.09567 -0.01717
0.02160 0.09567 -0.00670
0.01136 0.09567 0.00002
0.00000 0.09567 0.00234
-0.01136 0.09567 0.00002
-0.02160 0.09567 -0.00670
-0.02973 0.09567 -0.01717
-0.03495 0.09567 -0.03037
-0.03675 0.09567 -0.04500
-0.03495 0.09567 -0.05963
-0.02973 0.09567 -0.07283
-0.02160 0.09567 -0.08330
-0.01136 0.09567 -0.09002
-0.00000 0.09567 -0.09234
0.01136 0.09567 -0.09002
0.02160 0.09567 -0.08330
0.02973 0.09567 -0.07283
0.03495 0.09567 -0.05963
0.03675 0.09567 -0.04500
0.03663 0.09800 -0.04500
0.03484 0.09800 -0.03042
0.02963 0.09800 -0.01727
0.02153 0.09800 -0.00684
0.01132 0.09800 -0.00014
0.00000 0.09800 0.00217
-0.01132 0.09800 -0.00014
-0.02153 0.09800 -0.00684
-0.02963 0.09800 -0.01727
-0.03484 0.09800 -0.03042
-0.03663 0.09800 -0.04500
-0.03484 0.09800 -0.05958
-0.02963 0.09800 -0.07273
-0.02153 0.09800 -0.08316
-0.01132 0.09800 -0.08986
-0.00000 0.09800 -0.09217
0.01132 0.09800 -0.08986
0.02153 0.09800 -0.08316
0.02963 0.09800 -0.07273
0.03484 0.09800 -0.05958
0.03663 0.09800 -0.04500
0.03650 0.10033 -0.04500
0.03472 0.10033 -0.03048
0.02953 0.10033 -0.01738
0.02146 0.10033 -0.00698
0.01128 0.10033 -0.00030
0.00000 0.10033 0.00200
-0.01128 0.10033 -0.00030
-0.02146 0.10033 -0.00698
-0.02953 0.10033 -0.01738
-0.03472 0.10033 -0.03048
-0.03650 0.10033 -0.04500
-0.03472 0.10033 -0.05952
-0.02953 0.10033 -0.07262
-0.02146 0.10033 -0.08302
-0.01128 0.10033 -0.08970
-0.00000 0.10033 -0.09200
0.01128 0.10033 -0.08970
0.02146 0.10033 -0.08302
0.02953 0.10033 -0.07262
0.03472 0.10033 -0.05952
0.03650 0.10033 -0.04500
0.03638 0.10267 -0.04500
0.03459 0.10267 -0.03053
0.02943 0.10267 -0.01748
0.02138 0.10267 -0.00713
0.01124 0.10267 -0.00048
0.00000 0.10267 0.00182
-0.01124 0.10267 -0.00048
-0.02138 0.10267 -0.00713
-0.02943 0.10267 -0.01748
-0.03459 0.10267 -0.03053
-0.03638 0.10267 -0.04500
-0.03459 0.10267 -0.05947
-0.02943 0.10267 -0.07252
-0.02138 0.10267 -0.08287
-0.01124 0.10267 -0.08952
-0.00000 0.10267 -0.09182
0.01124 0.10267 -0.08952
0.02138 0.10267 -0.08287
0.02943 0.10267 -0.07252
0.03459 0.10267 -0.05947
0.03638 0.10267 -0.04500
0.03624 0.10500 -0.04500
0.03447 0.10500 -0.03059
0.02932 0.10500 -0.01759
0.02130 0.10500 -0.00728
0.01120 0.10500 -0.00066
0.00000 0.10500 0.00162
-0.01120 0.10500 -0.00066
-0.02130 0.10500 -0.00728
-0.02932 0.10500 -0.01759
-0.03447 0.10500 -0.03059
-0.03624 0.10500 -0.04500
-0.03447 0.10500 -0.05941
-0.02932 0.10500 -0.07241
-0.02130 0.10500 -0.08272
-0.01120 0.10500 -0.08934
-0.00000 0.10500 -0.09162
0.01120 0.10500 -0.08934
0.02130 0.10500 -0.08272
0.02932 0.10500 -0.07241
0.03447 0.10500 -0.05941
0.03624 0.10500 -0.04500
0.03611 0.10733 -0.04500
0.03434 0.10733 -0.03065
0.02921 0.10733 -0.01771
0.02122 0.10733 -0.00744
0.01116 0.10733 -0.00084
0.00000 0.10733 0.00143
-0.01116 0.10733 -0.00084
-0.02122 0.10733 -0.00744
-0.02921 0.10733 -0.01771
-0.03434 0.10733 -0.03065
-0.03611 0.10733 -0.04500
-0.03434 0.10733 -0.05935
-0.02921 0.10733 -0.07229
-0.02122 0.10733 -0.08256
-0.01116 0.10733 -0.08916
-0.00000 0.10733 -0.09143
0.01116 0.10733 -0.08916
0.02122 0.10733 -0.08256
0.02921 0.10733 -0.07229
0.03434 0.10733 -0.05935
0.03611 0.10733 -0.04500
0.03597 0.10967 -0.04500
0.03421 0.10967 -0.03072
0.02910 0.10967 -0.01783
0.02114 0.10967 -0.00760
0.01112 0.10967 -0.00104
0.00000 0.10967 0.00122
-0.01112 0.10967 -0.00104
-0.02114 0.10967 -0.00760
-0.02910 0.10967 -0.01783
-0.03421 0.10967 -0.03072
-0.03597 0.10967 -0.04500
-0.03421 0.10967 -0.05928
-0.02910 0.10967 -0.07217
-0.02114 0.10967 -0.08240
-0.01112 0.10967 -0.08896
-0.00000 0.10967 -0.09122
0.01112 0.10967 -0.08896
0.02114 0.10967 -0.08240
0.02910 0.10967 -0.07217
0.03421 0.10967 -0.05928
0.03597 0.10967 -0.04500
0.03583 0.11200 -0.04500
0.03408 0.11200 -0.03078
0.02899 0.11200 -0.01795
0.02106 0.11200 -0.00778
0.01107 0.11200 -0.00124
0.00000 0.11200 0.00101
-0.01107 0.11200 -0.00124
-0.02106 0.11200 -0.00778
-0.02899 0.11200 -0.01795
-0.03408 0.11200 -0.03078
-0.03583 0.11200 -0.04500
-0.03408 0.11200 -0.05922
-0.02899 0.11200 -0.07205
-0.02106 0.11200 -0.08222
-0.01107 0.11200 -0.08876
-0.00000 0.11200 -0.09101
0.01107 0.11200 -0.08876
0.02106 0.11200 -0.08222
0.02899 0.11200 -0.07205
0.03408 0.11200 -0.05922
0.03583 0.11200 -0.04500
0.03569 0.11433 -0.04500
0.03394 0.11433 -0.03085
0.02887 0.11433 -0.01808
0.02098 0.11433 -0.00795
0.01103 0.11433 -0.00145
0.00000 0.11433 0.00080
-0.01103 0.11433 -0.00145
-0.02098 0.11433 -0.00795
-0.02887 0.11433 -0.01808
-0.03394 0.11433 -0.03085
-0.03569 0.11433 -0.04500
-0.03394 0.11433 -0.05915
-0.02887 0.11433 -0.07192
-0.02098 0.11433 -0.08205
-0.01103 0.11433 -0.08855
-0.00000 0.11433 -0.09080
0.01103 0.11433 -0.08855
0.02098 0.11433 -0.08205
0.02887 0.11433 -0.07192
0.03394 0.11433 -0.05915
0.03569 0.11433 -0.04500
0.03554 0.11667 -0.04500
0.03380 0.11667 -0.03092
0.02875 0.11667 -0.01821
0.02089 0.11667 -0.00813
0.01098 0.11667 -0.00166
0.00000 0.11667 0.00057
-0.01098 0.11667 -0.00166
-0.02089 0.11667 -0.00813
-0.02875 0.11667 -0.01821
-0.03380 0.11667 -0.03092
-0.03554 0.11667 -0.04500
-0.03380 0.11667 -0.05908
-0.02875 0.11667 -0.07179
-0.02089 0.11667 -0.08187
-0.01098 0.11667 -0.08834
-0.00000 0.11667 -0.09057
0.01098 0.11667 -0.08834
0.02089 0.11667 -0.08187
0.02875 0.11667 -0.07179
0.03380 0.11667 -0.05908
0.03554 0.11667 -0.04500
0.03539 0.11900 -0.04500
0.03366 0.11900 -0.03099
0.02863 0.11900 -0.01835
0.02080 0.11900 -0.00832
0.01094 0.11900 -0.00188
0.00000 0.11900 0.00034
-0.01094 0.11900 -0.00188
-0.02080 0.11900 -0.00832
-0.02863 0.11900 -0.01835
-0.03366 0.11900 -0.03099
-0.03539 0.11900 -0.04500
-0.03366 0.11900 -0.05901
-0.02863 0.11900 -0.07165
-0.02080 0.11900 -0.08168
-0.01094 0.11900 -0.08812
-0.00000 0.11900 -0.09034
0.01094 0.11900 -0.08812
0.02080 0.11900 -0.08168
0.02863 0.11900 -0.07165
0.03366 0.11900 -0.05901
0.03539 0.11900 -0.04500
0.03524 0.12133 -0.04500
0.03351 0.12133 -0.03106
0.02851 0.12133 -0.01849
0.02071 0.12133 -0.00851
0.01089 0.12133 -0.00210
0.00000 0.12133 0.00011
-0.01089 0.12133 -0.00210
-0.02071 0.12133 -0.00851
-0.02851 0.12133 -0.01849
-0.03351 0.12133 -0.03106
-0.03524 0.12133 -0.04500
-0.03351 0.12133 -0.05894
-0.02851 0.12133 -0.07151
-0.02071 0.12133 -0.08149
-0.01089 0.12133 -0.08790
-0.00000 0.12133 -0.09011
0.01089 0.12133 -0.08790
0.02071 0.12133 -0.08149
0.02851 0.12133 -0.07151
0.03351 0.12133 -0.05894
0.03524 0.12133 -0.04500
0.03508 0.12367 -0.04500
0.03337 0.12367 -0.03114
0.02838 0.12367 -0.01863
0.02062 0.12367 -0.00870
0.01084 0.12367 -0.00233
0.00000 0.12367 -0.00013
-0.01084 0.12367 -0.00233
-0.02062 0.12367 -0.00870
-0.02838 0.12367 -0.01863
-0.03337 0.12367 -0.03114
-0.03508 0.12367 -0.04500
-0.03337 0.12367 -0.05886
-0.02838 0.12367 -0.07137
-0.02062 0.12367 -0.08130
-0.01084 0.12367 -0.08767
-0.00000 0.12367 -0.08987
0.01084 0.12367 -0.08767
0.02062 0.12367 -0.08130
0.02838 0.12367 -0.07137
0.03337 0.12367 -0.05886
0.03508 0.12367 -0.04500
0.03493 0.12600 -0.04500
0.03322 0.12600 -0.03121
0.02826 0.12600 -0.01877
0.02053 0.12600 -0.00890
0.01079 0.12600 -0.00256
0.00000 0.12600 -0.00038
-0.01079 0.12600 -0.00256
-0.02053 0.12600 -0.00890
-0.02826 0.12600 -0.01877
-0.03322 0.12600 -0.03121
-0.03493 0.12600 -0.04500
-0.03322 0.12600 -0.05879
-0.02826 0.12600 -0.07123
-0.02053 0.12600 -0.08110
-0.01079 0.12600 -0.08744
-0.00000 0.12600 -0.08962
0.01079 0.12600 -0.08744
0.02053 0.12600 -0.08110
0.02826 0.12600 -0.07123
0.03322 0.12600 -0.05879
0.03493 0.12600 -0.04500
0.03477 0.12833 -0.04500
0.03307 0.12833 -0.03129
0.02813 0.12833 -0.01892
0.02044 0.12833 -0.00910
0.01074 0.12833 -0.00280
0.00000 0.12833 -0.00063
-0.01074 0.12833 -0.00280
-0.02044 0.12833 -0.00910
-0.02813 0.12833 -0.01892
-0.03307 0.12833 -0.03129
-0.03477 0.12833 -0.04500
-0.03307 0.12833 -0.05871
-0.02813 0.12833 -0.07108
-0.02044 0.12833 -0.08090
-0.01074 0.12833 -0.08720
-0.00000 0.12833 -0.08937
0.01074 0.12833 -0.08720
0.02044 0.12833 -0.08090
0.02813 0.12833 -0.07108
0.03307 0.12833 -0.05871
0.03477 0.12833 -0.04500
0.03461 0.13067 -0.04500
0.03291 0.13067 -0.03137
0.02800 0.13067 -0.01907
0.02034 0.13067 -0.00931
0.01069 0.13067 -0.00304
0.00000 0.13067 -0.00088
-0.01069 0.13067 -0.00304
-0.02034 0.13067 -0.00931
-0.02800 0.13067 -0.01907
-0.03291 0.13067 -0.03137
-0.03461 0.13067 -0.04500
-0.03291 0.13067 -0.05863
-0.02800 0.13067 -0.07093
-0.02034 0.13067 -0.08069
-0.01069 0.13067 -0.08696
-0.00000 0.13067 -0.08912
0.01069 0.13067 -0.08696
0.02034 0.13067 -0.08069
0.02800 0.13067 -0.07093
0.03291 0.13067 -0.05863
0.03461 0.13067 -0.04500
0.03444 0.13300 -0.04500
0.03276 0.13300 -0.03145
0.02786 0.13300 -0.01922
0.02024 0.13300 -0.00952
0.01064 0.13300 -0.00329
0.00000 0.13300 -0.00114
-0.01064 0.13300 -0.00329
-0.02024 0.13300 -0.00952
-0.02786 0.13300 -0.01922
-0.03276 0.13300 -0.03145
-0.03444 0.13300 -0.04500
-0.03276 0.13300 -0.05855
-0.02786 0.13300 -0.07078
-0.02024 0.13300 -0.08048
-0.01064 0.13300 -0.08671
-0.00000 0.13300 -0.08886
0.01064 0.13300 -0.08671
0.02024 0.13300 -0.08048
0.02786 0.13300 -0.07078
0.03276 0.13300 -0.05855
0.03444 0.13300 -0.04500
0.03428 0.13533 -0.04500
0.03260 0.13533 -0.03153
0.02773 0.13533 -0.01937
0.02015 0.13533 -0.00973
0.01059 0.13533 -0.00354
0.00000 0.13533 -0.00140
-0.01059 0.13533 -0.00354
-0.02015 0.13533 -0.00973
-0.02773 0.13533 -0.01937
-0.03260 0.13533 -0.03153
-0.03428 0.13533 -0.04500
-0.03260 0.13533 -0.05847
-0.02773 0.13533 -0.07063
-0.02015 0.13533 -0.08027
-0.01059 0.13533 -0.08646
-0.00000 0.13533 -0.08860
0.01059 0.13533 -0.08646
0.02015 0.13533 -0.08027
0.02773 0.13533 -0.07063
0.03260 0.13533 -0.05847
0.03428 0.13533 -0.04500
0.03411 0.13767 -0.04500
0.03244 0.13767 -0.03161
0.02760 0.13767 -0.01953
0.02005 0.13767 -0.00994
0.01054 0.13767 -0.00379
0.00000 0.13767 -0.00167
-0.01054 0.13767 -0.00379
-0.02005 0.13767 -0.00994
-0.02760 0.13767 -0.01953
-0.03244 0.13767 -0.03161
-0.03411 0.13767 -0.04500
-0.03244 0.13767 -0.05839
-0.02760 0.13767 -0.07047
-0.02005 0.13767 -0.08006
-0.01054 0.13767 -0.08621
-0.00000 0.13767 -0.08833
0.01054 0.13767 -0.08621
0.02005 0.13767 -0.08006
0.02760 0.13767 -0.07047
0.03244 0.13767 -0.05839
0.03411 0.13767 -0.04500
0.03394 0.14000 -0.04500
0.03228 0.14000 -0.03169
0.02746 0.14000 -0.01969
0.01995 0.14000 -0.01016
0.01049 0.14000 -0.00405
0.00000 0.14000 -0.00194
-0.01049 0.14000 -0.00405
-0.01995 0.14000 -0.01016
-0.02746 0.14000 -0.01969
-0.03228 0.14000 -0.03169
-0.03394 0.14000 -0.04500
-0.03228 0.14000 -0.05831
-0.02746 0.14000 -0.07031
-0.01995 0.14000 -0.07984
-0.01049 0.14000 -0.08595
-0.00000 0.14000 -0.08806
0.01049 0.14000 -0.08595
0.01995 0.14000 -0.07984
0.02746 0.14000 -0.07031
0.03228 0.14000 -0.05831
0.03394 0.14000 -0.04500
0.03377 0.14233 -0.04500
0.03212 0.14233 -0.03178
0.02732 0.14233 -0.01985
0.01985 0.14233 -0.01038
0.01044 0.14233 -0.00430
0.00000 0.14233 -0.00221
-0.01044 0.14233 -0.00430
-0.01985 0.14233 -0.01038
-0.02732 0.14233 -0.01985
-0.03212 0.14233 -0.03178
-0.03377 0.14233 -0.04500
-0.03212 0.14233 -0.05822
-0.02732 0.14233 -0.07015
-0.01985 0.14233 -0.07962
-0.01044 0.14233 -0.08570
-0.00000 0.14233 -0.08779
0.01044 0.14233 -0.08570
0.01985 0.14233 -0.07962
0.02732 0.14233 -0.07015
0.03212 0.14233 -0.05822
0.03377 0.14233 -0.04500
0.03360 0.14467 -0.04500
0.03196 0.14467 -0.03186
0.02718 0.14467 -0.02001
0.01975 0.14467 -0.01060
0.01038 0.14467 -0.00457
0.00000 0.14467 -0.00248
-0.01038 0.14467 -0.00457
-0.01975 0.14467 -0.01060
-0.02718 0.14467 -0.02001
-0.03196 0.14467 -0.03186
-0.03360 0.14467 -0.04500
-0.03196 0.14467 -0.05814
-0.02718 0.14467 -0.06999
-0.01975 0.14467 -0.07940
-0.01038 0.14467 -0.08543
-0.00000 0.14467 -0.08752
0.01038 0.14467 -0.08543
0.01975 0.14467 -0.07940
0.02718 0.14467 -0.06999
0.03196 0.14467 -0.05814
0.03360 0.14467 -0.04500
0.03343 0.14700 -0.04500
0.03179 0.14700 -0.03195
0.02704 0.14700 -0.02017
0.01965 0.14700 -0.01083
0.01033 0.14700 -0.00483
0.00000 0.14700 -0.00276
-0.01033 0.14700 -0.00483
-0.01965 0.14700 -0.01083
-0.02704 0.14700 -0.02017
-0.03179 0.14700 -0.03195
-0.03343 0.14700 -0.04500
-0.03179 0.14700 -0.05805
-0.02704 0.14700 -0.06983
-0.01965 0.14700 -0.07917
-0.01033 0.14700 -0.08517
-0.00000 0.14700 -0.08724
0.01033 0.14700 -0.08517
0.01965 0.14700 -0.07917
0.02704 0.14700 -0.06983
0.03179 0.14700 -0.05805
0.03343 0.14700 -0.04500
0.03325 0.14933 -0.04500
0.03163 0.14933 -0.03203
0.02690 0.14933 -0.02034
0.01955 0.14933 -0.01105
0.01028 0.14933 -0.00509
0.00000 0.14933 -0.00304
-0.01028 0.14933 -0.00509
-0.01955 0.14933 -0.01105
-0.02690 0.14933 -0.02034
-0.03163 0.14933 -0.03203
-0.03325 0.14933 -0.04500
-0.03163 0.14933 -0.05797
-0.02690 0.14933 -0.06966
-0.01955 0.14933 -0.07895
-0.01028 0.14933 -0.08491
-0.00000 0.14933 -0.08696
0.01028 0.14933 -0.08491
0.01955 0.14933 -0.07895
0.02690 0.14933 -0.06966
0.03163 0.14933 -0.05797
0.03325 0.14933 -0.04500
0.03308 0.15167 -0.04500
0.03146 0.15167 -0.03212
0.02676 0.15167 -0.02050
0.01944 0.15167 -0.01128
0.01022 0.15167 -0.00536
0.00000 0.15167 -0.00332
-0.01022 0.15167 -0.00536
-0.01944 0.15167 -0.01128
-0.02676 0.15167 -0.02050
-0.03146 0.15167 -0.03212
-0.03308 0.15167 -0.04500
-0.03146 0.15167 -0.05788
-0.02676 0.15167 -0.06950
-0.01944 0.15167 -0.07872
-0.01022 0.15167 -0.08464
-0.00000 0.15167 -0.08668
0.01022 0.15167 -0.08464
0.01944 0.15167 -0.07872
0.02676 0.15167 -0.06950
0.03146 0.15167 -0.05788
0.03308 0.15167 -0.04500
0.03290 0.15400 -0.04500
0.03129 0.15400 -0.03221
0.02662 0.15400 -0.02067
0.01934 0.15400 -0.01151
0.01017 0.15400 -0.00563
0.00000 0.15400 -0.00360
-0.01017 0.15400 -0.00563
-0.01934 0.15400 -0.01151
-0.02662 0.15400 -0.02067
-0.03129 0.15400 -0.03221
-0.03290 0.15400 -0.04500
-0.03129 0.15400 -0.05779
-0.02662 0.15400 -0.06933
-0.01934 0.15400 -0.07849
-0.01017 0.15400 -0.08437
-0.00000 0.15400 -0.08640
0.01017 0.15400 -0.08437
0.01934 0.15400 -0.07849
0.02662 0.15400 -0.06933
0.03129 0.15400 -0.05779
0.03290 0.15400 -0.04500
0.03273 0.15633 -0.04500
0.03113 0.15633 -0.03229
0.02648 0.15633 -0.02083
0.01924 0.15633 -0.01174
0.01011 0.15633 -0.00589
0.00000 0.15633 -0.00388
-0.01011 0.15633 -0.00589
-0.01924 0.15633 -0.01174
-0.02648 0.15633 -0.02083
-0.03113 0.15633 -0.03229
-0.03273 0.15633 -0.04500
-0.03113 0.15633 -0.05771
-0.02648 0.15633 -0.06917
-0.01924 0.15633 -0.07826
-0.01011 0.15633 -0.08411
-0.00000 0.15633 -0.08612
0.01011 0.15633 -0.08411
0.01924 0.15633 -0.07826
0.02648 0.15633 -0.06917
0.03113 0.15633 -0.05771
0.03273 0.15633 -0.04500
0.03255 0.15867 -0.04500
0.03096 0.15867 -0.03238
0.02633 0.15867 -0.02100
0.01913 0.15867 -0.01196
0.01006 0.15867 -0.00616
0.00000 0.15867 -0.00416
-0.01006 0.15867 -0.00616
-0.01913 0.15867 -0.01196
-0.02633 0.15867 -0.02100
-0.03096 0.15867 -0.03238
-0.03255 0.15867 -0.04500
-0.03096 0.15867 -0.05762
-0.02633 0.15867 -0.06900
-0.01913 0.15867 -0.07804
-0.01006 0.15867 -0.08384
-0.00000 0.15867 -0.08584
0.01006 0.15867 -0.08384
0.01913 0.15867 -0.07804
0.02633 0.15867 -0.06900
0.03096 0.15867 -0.05762
0.03255 0.15867 -0.04500
0.03237 0.16100 -0.04500
0.03079 0.16100 -0.03247
0.02619 0.16100 -0.02116
0.01903 0.16100 -0.01219
0.01000 0.16100 -0.00643
0.00000 0.16100 -0.00445
-0.01000 0.16100 -0.00643
-0.01903 0.16100 -0.01219
-0.02619 0.16100 -0.02116
-0.03079 0.16100 -0.03247
-0.03237 0.16100 -0.04500
-0.03079 0.16100 -0.05753
-0.02619 0.16100 -0.06884
-0.01903 0.16100 -0.07781
-0.01000 0.16100 -0.08357
-0.00000 0.16100 -0.08555
0.01000 0.16100 -0.08357
0.01903 0.16100 -0.07781
0.02619 0.16100 -0.06884
0.03079 0.16100 -0.05753
0.03237 0.16100 -0.04500
0.03220 0.16333 -0.04500
0.03062 0.16333 -0.03256
0.02605 0.16333 -0.02133
0.01892 0.16333 -0.01242
0.00995 0.16333 -0.00670
0.00000 0.16333 -0.00473
-0.00995 0.16333 -0.00670
-0.01892 0.16333 -0.01242
-0.02605 0.16333 -0.02133
-0.03062 0.16333 -0.03256
-0.03220 0.16333 -0.04500
-0.03062 0.16333 -0.05744
-0.02605 0.16333 -0.06867
-0.01892 0.16333 -0.07758
-0.00995 0.16333 -0.08330
-0.00000 0.16333 -0.08527
0.00995 0.16333 -0.08330
0.01892 0.16333 -0.07758
0.02605 0.16333 -0.06867
0.03062 0.16333 -0.05744
0.03220 0.16333 -0.04500
0.03202 0.16567 -0.04500
0.03045 0.16567 -0.03264
0.02590 0.16567 -0.02150
0.01882 0.16567 -0.01265
0.00989 0.16567 -0.00697
0.00000 0.16567 -0.00501
-0.00989 0.16567 -0.00697
-0.01882 0.16567 -0.01265
-0.02590 0.16567 -0.02150
-0.03045 0.16567 -0.03264
-0.03202 0.16567 -0.04500
-0.03045 0.16567 -0.05736
-0.02590 0.16567 -0.06850
-0.01882 0.16567 -0.07735
-0.00989 0.16567 -0.08303
-0.00000 0.16567 -0.08499
0.00989 0.16567 -0.08303
0.01882 0.16567 -0.07735
0.02590 0.16567 -0.06850
0.03045 0.16567 -0.05736
0.03202 0.16567 -0.04500
0.03184 0.16800 -0.04500
0.03028 0.16800 -0.03273
0.02576 0.16800 -0.02166
0.01871 0.16800 -0.01288
0.00984 0.16800 -0.00724
0.00000 0.16800 -0.00529
-0.00984 0.16800 -0.00724
-0.01871 0.16800 -0.01288
-0.02576 0.16800 -0.02166
-0.03028 0.16800 -0.03273
-0.03184 0.16800 -0.04500
-0.03028 0.16800 -0.05727
-0.02576 0.16800 -0.06834
-0.01871 0.16800 -0.07712
-0.00984 0.16800 -0.08276
-0.00000 0.16800 -0.08471
0.00984 0.16800 -0.08276
0.01871 0.16800 -0.07712
0.02576 0.16800 -0.06834
0.03028 0.16800 -0.05727
0.03184 0.16800 -0.04500
0.03166 0.17033 -0.04500
0.03011 0.17033 -0.03282
0.02562 0.17033 -0.02183
0.01861 0.17033 -0.01310
0.00978 0.17033 -0.00750
0.00000 0.17033 -0.00557
-0.00978 0.17033 -0.00750
-0.01861 0.17033 -0.01310
-0.02562 0.17033 -0.02183
-0.03011 0.17033 -0.03282
-0.03166 0.17033 -0.04500
-0.03011 0.17033 -0.05718
-0.02562 0.17033 -0.06817
-0.01861 0.17033 -0.07690
-0.00978 0.17033 -0.08250
-0.00000 0.17033 -0.08443
0.00978 0.17033 -0.08250
0.01861 0.17033 -0.07690
0.02562 0.17033 -0.06817
0.03011 0.17033 -0.05718
0.03166 0.17033 -0.04500
0.03148 0.17267 -0.04500
0.02994 0.17267 -0.03290
0.02547 0.17267 -0.02199
0.01851 0.17267 -0.01333
0.00973 0.17267 -0.00777
0.00000 0.17267 -0.00585
-0.00973 0.17267 -0.00777
-0.01851 0.17267 -0.01333
-0.02547 0.17267 -0.02199
-0.02994 0.17267 -0.03290
-0.03148 0.17267 -0.04500
-0.02994 0.17267 -0.05710
-0.02547 0.17267 -0.06801
-0.01851 0.17267 -0.07667
-0.00973 0.17267 -0.08223
-0.00000 0.17267 -0.08415
0.00973 0.17267 -0.08223
0.01851 0.17267 -0.07667
0.02547 0.17267 -0.06801
0.02994 0.17267 -0.05710
0.03148 0.17267 -0.04500
0.03131 0.17500 -0.04500
0.02978 0.17500 -0.03299
0.02533 0.17500 -0.02215
0.01840 0.17500 -0.01355
0.00967 0.17500 -0.00803
0.00000 0.17500 -0.00613
-0.00967 0.17500 -0.00803
-0.01840 0.17500 -0.01355
-0.02533 0.17500 -0.02215
-0.02978 0.17500 -0.03299
-0.03131 0.17500 -0.04500
-0.02978 0.17500 -0.05701
-0.02533 0.17500 -0.06785
-0.01840 0.17500 -0.07645
-0.00967 0.17500 -0.08197
-0.00000 0.17500 -0.08387
0.00967 0.17500 -0.08197
0.01840 0.17500 -0.07645
0.02533 0.17500 -0.06785
0.02978 0.17500 -0.05701
0.03131 0.17500 -0.04500
0.03113 0.17733 -0.04500
0.02961 0.17733 -0.03307
0.02519 0.17733 -0.02231
0.01830 0.17733 -0.01377
0.00962 0.17733 -0.00829
0.00000 0.17733 -0.00640
-0.00962 0.17733 -0.00829
-0.01830 0.17733 -0.01377
-0.02519 0.17733 -0.02231
-0.02961 0.17733 -0.03307
-0.03113 0.17733 -0.04500
-0.02961 0.17733 -0.05693
-0.02519 0.17733 -0.06769
-0.01830 0.17733 -0.07623
-0.00962 0.17733 -0.08171
-0.00000 0.17733 -0.08360
0.00962 0.17733 -0.08171
0.01830 0.17733 -0.07623
0.02519 0.17733 -0.06769
0.02961 0.17733 -0.05693
0.03113 0.17733 -0.04500
0.03096 0.17967 -0.04500
0.02944 0.17967 -0.03316
0.02504 0.17967 -0.02247
0.01820 0.17967 -0.01399
0.00957 0.17967 -0.00855
0.00000 0.17967 -0.00667
-0.00957 0.17967 -0.00855
-0.01820 0.17967 -0.01399
-0.02504 0.17967 -0.02247
-0.02944 0.17967 -0.03316
-0.03096 0.17967 -0.04500
-0.02944 0.17967 -0.05684
-0.02504 0.17967 -0.06753
-0.01820 0.17967 -0.07601
-0.00957 0.17967 -0.08145
-0.00000 0.17967 -0.08333
0.00957 0.17967 -0.08145
0.01820 0.17967 -0.07601
0.02504 0.17967 -0.06753
0.02944 0.17967 -0.05684
0.03096 0.17967 -0.04500
0.03078 0.18200 -0.04500
0.02927 0.18200 -0.03324
0.02490 0.18200 -0.02263
0.01809 0.18200 -0.01421
0.00951 0.18200 -0.00881
0.00000 0.18200 -0.00694
-0.00951 0.18200 -0.00881
-0.01809 0.18200 -0.01421
-0.02490 0.18200 -0.02263
-0.02927 0.18200 -0.03324
-0.03078 0.18200 -0.04500
-0.02927 0.18200 -0.05676
-0.02490 0.18200 -0.06737
-0.01809 0.18200 -0.07579
-0.00951 0.18200 -0.08119
-0.00000 0.18200 -0.08306
0.00951 0.18200 -0.08119
0.01809 0.18200 -0.07579
0.02490 0.18200 -0.06737
0.02927 0.18200 -0.05676
0.03078 0.18200 -0.04500
0.03061 0.18433 -0.04500
0.02911 0.18433 -0.03332
0.02476 0.18433 -0.02279
0.01799 0.18433 -0.01443
0.00946 0.18433 -0.00906
0.00000 0.18433 -0.00721
-0.00946 0.18433 -0.00906
-0.01799 0.18433 -0.01443
-0.02476 0.18433 -0.02279
-0.02911 0.18433 -0.03332
-0.03061 0.18433 -0.04500
-0.02911 0.18433 -0.05668
-0.02476 0.18433 -0.06721
-0.01799 0.18433 -0.07557
-0.00946 0.18433 -0.08094
-0.00000 0.18433 -0.08279
0.00946 0.18433 -0.08094
0.01799 0.18433 -0.07557
0.02476 0.18433 -0.06721
0.02911 0.18433 -0.05668
0.03061 0.18433 -0.04500
0.03043 0.18667 -0.04500
0.02894 0.18667 -0.03340
0.02462 0.18667 -0.02294
0.01789 0.18667 -0.01464
0.00940 0.18667 -0.00931
0.00000 0.18667 -0.00747
-0.00940 0.18667 -0.00931
-0.01789 0.18667 -0.01464
-0.02462 0.18667 -0.02294
-0.02894 0.18667 -0.03340
-0.03043 0.18667 -0.04500
-0.02894 0.18667 -0.05660
-0.02462 0.18667 -0.06706
-0.01789 0.18667 -0.07536
-0.00940 0.18667 -0.08069
-0.00000 0.18667 -0.08253
0.00940 0.18667 -0.08069
0.01789 0.18667 -0.07536
0.02462 0.18667 -0.06706
0.02894 0.18667 -0.05660
0.03043 0.18667 -0.04500
0.03026 0.18900 -0.04500
0.02878 0.18900 -0.03348
0.02448 0.18900 -0.02309
0.01779 0.18900 -0.01485
0.00935 0.18900 -0.00955
0.00000 0.18900 -0.00773
-0.00935 0.18900 -0.00955
-0.01779 0.18900 -0.01485
-0.02448 0.18900 -0.02309
-0.02878 0.18900 -0.03348
-0.03026 0.18900 -0.04500
-0.02878 0.18900 -0.05652
-0.02448 0.18900 -0.06691
-0.01779 0.18900 -0.07515
-0.00935 0.18900 -0.08045
-0.00000 0.18900 -0.08227
0.00935 0.18900 -0.08045
0.01779 0.18900 -0.07515
0.02448 0.18900 -0.06691
0.02878 0.18900 -0.05652
0.03026 0.18900 -0.04500
0.03009 0.19133 -0.04500
0.02862 0.19133 -0.03356
0.02434 0.19133 -0.02324
0.01769 0.19133 -0.01505
0.00930 0.19133 -0.00979
0.00000 0.19133 -0.00798
-0.00930 0.19133 -0.00979
-0.01769 0.19133 -0.01505
-0.02434 0.19133 -0.02324
-0.02862 0.19133 -0.03356
-0.03009 0.19133 -0.04500
-0.02862 0.19133 -0.05644
-0.02434 0.19133 -0.06676
-0.01769 0.19133 -0.07495
-0.00930 0.19133 -0.08021
-0.00000 0.19133 -0.08202
0.00930 0.19133 -0.08021
0.01769 0.19133 -0.07495
0.02434 0.19133 -0.06676
0.02862 0.19133 -0.05644
0.03009 0.19133 -0.04500
0.02992 0.19367 -0.04500
0.02846 0.19367 -0.03364
0.02421 0.19367 -0.02339
0.01759 0.19367 -0.01525
0.00925 0.19367 -0.01003
0.00000 0.19367 -0.00823
-0.00925 0.19367 -0.01003
-0.01759 0.19367 -0.01525
-0.02421 0.19367 -0.02339
-0.02846 0.19367 -0.03364
-0.02992 0.19367 -0.04500
-0.02846 0.19367 -0.05636
-0.02421 0.19367 -0.06661
-0.01759 0.19367 -0.07475
-0.00925 0.19367 -0.07997
-0.00000 0.19367 -0.08177
0.00925 0.19367 -0.07997
0.01759 0.19367 -0.07475
0.02421 0.19367 -0.06661
0.02846 0.19367 -0.05636
0.02992 0.19367 -0.04500
0.02975 0.19600 -0.04500
0.02830 0.19600 -0.03371
0.02407 0.19600 -0.02353
0.01749 0.19600 -0.01545
0.00919 0.19600 -0.01027
0.00000 0.19600 -0.00848
-0.00919 0.19600 -0.01027
-0.01749 0.19600 -0.01545
-0.02407 0.19600 -0.02353
-0.02830 0.19600 -0.03371
-0.02975 0.19600 -0.04500
-0.02830 0.19600 -0.05629
-0.02407 0.19600 -0.06647
-0.01749 0.19600 -0.07455
-0.00919 0.19600 -0.07973
-0.00000 0.19600 -0.08152
0.00919 0.19600 -0.07973
0.01749 0.19600 -0.07455
0.02407 0.19600 -0.06647
0.02830 0.19600 -0.05629
0.02975 0.19600 -0.04500
0.02959 0.19833 -0.04500
0.02814 0.19833 -0.03379
0.02394 0.19833 -0.02367
0.01739 0.19833 -0.01565
0.00914 0.19833 -0.01049
0.00000 0.19833 -0.00872
-0.00914 0.19833 -0.01049
-0.01739 0.19833 -0.01565
-0.02394 0.19833 -0.02367
-0.02814 0.19833 -0.03379
-0.02959 0.19833 -0.04500
-0.02814 0.19833 -0.05621
-0.02394 0.19833 -0.06633
-0.01739 0.19833 -0.07435
-0.00914 0.19833 -0.07951
-0.00000 0.19833 -0.08128
0.00914 0.19833 -0.07951
0.01739 0.19833 -0.07435
0.02394 0.19833 -0.06633
0.02814 0.19833 -0.05621
0.02959 0.19833 -0.04500
0.02943 0.20067 -0.04500
0.02799 0.20067 -0.03386
0.02381 0.20067 -0.02381
0.01730 0.20067 -0.01584
0.00909 0.20067 -0.01072
0.00000 0.20067 -0.00895
-0.00909 0.20067 -0.01072
-0.01730 0.20067 -0.01584
-0.02381 0.20067 -0.02381
-0.02799 0.20067 -0.03386
-0.02943 0.20067 -0.04500
-0.02799 0.20067 -0.05614
-0.02381 0.20067 -0.06619
-0.01730 0.20067 -0.07416
-0.00909 0.20067 -0.07928
-0.00000 0.20067 -0.08105
0.00909 0.20067 -0.07928
0.01730 0.20067 -0.07416
0.02381 0.20067 -0.06619
0.02799 0.20067 -0.05614
0.02943 0.20067 -0.04500
0.02926 0.20300 -0.04500
0.02783 0.20300 -0.03393
0.02368 0.20300 -0.02395
0.01720 0.20300 -0.01602
0.00904 0.20300 -0.01093
0.00000 0.20300 -0.00918
-0.00904 0.20300 -0.01093
-0.01720 0.20300 -0.01602
-0.02368 0.20300 -0.02395
-0.02783 0.20300 -0.03393
-0.02926 0.20300 -0.04500
-0.02783 0.20300 -0.05607
-0.02368 0.20300 -0.06605
-0.01720 0.20300 -0.07398
-0.00904 0.20300 -0.07907
-0.00000 0.20300 -0.08082
0.00904 0.20300 -0.07907
0.01720 0.20300 -0.07398
0.02368 0.20300 -0.06605
0.02783 0.20300 -0.05607
0.02926 0.20300 -0.04500
0.02910 0.20533 -0.04500
0.02768 0.20533 -0.03400
0.02355 0.20533 -0.02408
0.01711 0.20533 -0.01620
0.00899 0.20533 -0.01115
0.00000 0.20533 -0.00940
-0.00899 0.20533 -0.01115
-0.01711 0.20533 -0.01620
-0.02355 0.20533 -0.02408
-0.02768 0.20533 -0.03400
-0.02910 0.20533 -0.04500
-0.02768 0.20533 -0.05600
-0.02355 0.20533 -0.06592
-0.01711 0.20533 -0.07380
-0.00899 0.20533 -0.07885
-0.00000 0.20533 -0.08060
0.00899 0.20533 -0.07885
0.01711 0.20533 -0.07380
0.02355 0.20533 -0.06592
0.02768 0.20533 -0.05600
0.02910 0.20533 -0.04500
0.02895 0.20767 -0.04500
0.02753 0.20767 -0.03407
0.02342 0.20767 -0.02421
0.01701 0.20767 -0.01638
0.00895 0.20767 -0.01135
0.00000 0.20767 -0.00962
-0.00895 0.20767 -0.01135
-0.01701 0.20767 -0.01638
-0.02342 0.20767 -0.02421
-0.02753 0.20767 -0.03407
-0.02895 0.20767 -0.04500
-0.02753 0.20767 -0.05593
-0.02342 0.20767 -0.06579
-0.01701 0.20767 -0.07362
-0.00895 0.20767 -0.07865
-0.00000 0.20767 -0.08038
0.00895 0.20767 -0.07865
0.01701 0.20767 -0.07362
0.02342 0.20767 -0.06579
0.02753 0.20767 -0.05593
0.02895 0.20767 -0.04500
0.02879 0.21000 -0.04500
0.02738 0.21000 -0.03413
0.02329 0.21000 -0.02433
0.01692 0.21000 -0.01655
0.00890 0.21000 -0.01155
0.00000 0.21000 -0.00983
-0.00890 0.21000 -0.01155
-0.01692 0.21000 -0.01655
-0.02329 0.21000 -0.02433
-0.02738 0.21000 -0.03413
-0.02879 0.21000 -0.04500
-0.02738 0.21000 -0.05587
-0.02329 0.21000 -0.06567
-0.01692 0.21000 -0.07345
-0.00890 0.21000 -0.07845
-0.00000 0.21000 -0.08017
0.00890 0.21000 -0.07845
0.01692 0.21000 -0.07345
0.02329 0.21000 -0.06567
0.02738 0.21000 -0.05587
0.02879 0.21000 -0.04500
0.02864 0.21233 -0.04500
0.02724 0.21233 -0.03420
0.02317 0.21233 -0.02445
0.01683 0.21233 -0.01671
0.00885 0.21233 -0.01175
0.00000 0.21233 -0.01004
-0.00885 0.21233 -0.01175
-0.01683 0.21233 -0.01671
-0.02317 0.21233 -0.02445
-0.02724 0.21233 -0.03420
-0.02864 0.21233 -0.04500
-0.02724 0.21233 -0.05580
-0.02317 0.21233 -0.06555
-0.01683 0.21233 -0.07329
-0.00885 0.21233 -0.07825
-0.00000 0.21233 -0.07996
0.00885 0.21233 -0.07825
0.01683 0.21233 -0.07329
0.02317 0.21233 -0.06555
0.02724 0.21233 -0.05580
0.02864 0.21233 -0.04500
0.02849 0.21467 -0.04500
0.02709 0.21467 -0.03426
0.02305 0.21467 -0.02456
0.01675 0.21467 -0.01687
0.00880 0.21467 -0.01193
0.00000 0.21467 -0.01023
-0.00880 0.21467 -0.01193
-0.01675 0.21467 -0.01687
-0.02305 0.21467 -0.02456
-0.02709 0.21467 -0.03426
-0.02849 0.21467 -0.04500
-0.02709 0.21467 -0.05574
-0.02305 0.21467 -0.06544
-0.01675 0.21467 -0.07313
-0.00880 0.21467 -0.07807
-0.00000 0.21467 -0.07977
0.00880 0.21467 -0.07807
0.01675 0.21467 -0.07313
0.02305 0.21467 -0.06544
0.02709 0.21467 -0.05574
0.02849 0.21467 -0.04500
0.02834 0.21700 -0.04500
0.02695 0.21700 -0.03432
0.02293 0.21700 -0.02468
0.01666 0.21700 -0.01703
0.00876 0.21700 -0.01212
0.00000 0.21700 -0.01042
-0.00876 0.21700 -0.01212
-0.01666 0.21700 -0.01703
-0.02293 0.21700 -0.02468
-0.02695 0.21700 -0.03432
-0.02834 0.21700 -0.04500
-0.02695 0.21700 -0.05568
-0.02293 0.21700 -0.06532
-0.01666 0.21700 -0.07297
-0.00876 0.21700 -0.07788
-0.00000 0.21700 -0.07958
0.00876 0.21700 -0.07788
0.01666 0.21700 -0.07297
0.02293 0.21700 -0.06532
0.02695 0.21700 -0.05568
0.02834 0.21700 -0.04500
0.02820 0.21933 -0.04500
0.02682 0.21933 -0.03437
0.02281 0.21933 -0.02478
0.01657 0.21933 -0.01717
0.00871 0.21933 -0.01229
0.00000 0.21933 -0.01061
-0.00871 0.21933 -0.01229
-0.01657 0.21933 -0.01717
-0.02281 0.21933 -0.02478
-0.02682 0.21933 -0.03437
-0.02820 0.21933 -0.04500
-0.02682 0.21933 -0.05563
-0.02281 0.21933 -0.06522
-0.01657 0.21933 -0.07283
-0.00871 0.21933 -0.07771
-0.00000 0.21933 -0.07939
0.00871 0.21933 -0.07771
0.01657 0.21933 -0.07283
0.02281 0.21933 -0.06522
0.02682 0.21933 -0.05563
0.02820 0.21933 -0.04500
0.02806 0.22167 -0.04500
0.02668 0.22167 -0.03443
0.02270 0.22167 -0.02489
0.01649 0.22167 -0.01732
0.00867 0.22167 -0.01246
0.00000 0.22167 -0.01078
-0.00867 0.22167 -0.01246
-0.01649 0.22167 -0.01732
-0.02270 0.22167 -0.02489
-0.02668 0.22167 -0.03443
-0.02806 0.22167 -0.04500
-0.02668 0.22167 -0.05557
-0.02270 0.22167 -0.06511
-0.01649 0.22167 -0.07268
-0.00867 0.22167 -0.07754
-0.00000 0.22167 -0.07922
0.00867 0.22167 -0.07754
0.01649 0.22167 -0.07268
0.02270 0.22167 -0.06511
0.02668 0.22167 -0.05557
0.02806 0.22167 -0.04500
0.02792 0.22400 -0.04500
0.02655 0.22400 -0.03448
0.02259 0.22400 -0.02498
0.01641 0.22400 -0.01745
0.00863 0.22400 -0.01261
0.00000 0.22400 -0.01095
-0.00863 0.22400 -0.01261
-0.01641 0.22400 -0.01745
-0.02259 0.22400 -0.02498
-0.02655 0.22400 -0.03448
-0.02792 0.22400 -0.04500
-0.02655 0.22400 -0.05552
-0.02259 0.22400 -0.06502
-0.01641 0.22400 -0.07255
-0.00863 0.22400 -0.07739
-0.00000 0.22400 -0.07905
0.00863 0.22400 -0.07739
0.01641 0.22400 -0.07255
0.02259 0.22400 -0.06502
0.02655 0.22400 -0.05552
0.02792 0.22400 -0.04500
0.02778 0.22633 -0.04500
0.02642 0.22633 -0.03453
0.02248 0.22633 -0.02508
0.01633 0.22633 -0.01758
0.00859 0.22633 -0.01277
0.00000 0.22633 -0.01111
-0.00859 0.22633 -0.01277
-0.01633 0.22633 -0.01758
-0.02248 0.22633 -0.02508
-0.02642 0.22633 -0.03453
-0.02778 0.22633 -0.04500
-0.02642 0.22633 -0.05547
-0.02248 0.22633 -0.06492
-0.01633 0.22633 -0.07242
-0.00859 0.22633 -0.07723
